# .PCD v0.7 - Point Cloud Data file format
VERSION 0.7
FIELDS x y z rgb
SIZE 4 4 4 4
TYPE F F F U
COUNT 1 1 1 1
WIDTH 1125
HEIGHT 1
VIEWPOINT 0 0 0 1 0 0 0
POINTS 1125
DATA ascii
1.7431533 0.27251598 0.47032341 4282860865
1.7432021 0.32205567 0.47032356 4282926659
1.7432508 0.37159532 0.47032368 4282926402
1.7432996 0.42113504 0.47032395 4282926658
1.7435958 0.46827033 0.47267723 4283123780
1.7443973 0.52052224 0.4797368 4283057988
1.7444459 0.57009107 0.47973701 4283124037
1.7444948 0.61965996 0.47973716 4283057988
1.7445436 0.66922879 0.4797374 4283124037
1.7445921 0.71879756 0.47973752 4283123780
1.7446408 0.7683664 0.47973773 4283189573
1.7446994 0.82784903 0.47973797 4283189573
1.7447481 0.87741786 0.47973812 4283255366
1.7456305 0.92744434 0.47932449 4283255623
1.745846 0.97713143 0.4792431 4283255623
1.7458949 1.0267293 0.47924328 4283321159
1.7459435 1.0763276 0.47924352 4283386952
1.7459922 1.1259253 0.47924367 4283386952
1.7460313 1.1656036 0.47924384 4283321159
3.2436955 -2.2278428 0.51969832 4283189573
3.2437506 -2.1718397 0.5196985 4283189830
3.2437873 -2.1345038 0.51969862 4283124037
3.2438424 -2.078501 0.51969886 4283189830
3.2438974 -2.0224977 0.5196991 4283255366
3.2439342 -1.9851623 0.51969922 4283255366
3.244489 -1.9294568 0.51957405 4283189573
3.2450438 -1.8737401 0.51944888 4283189830
3.2450805 -1.836393 0.51944911 4283255623
3.2451355 -1.7803723 0.51944929 4283189573
3.2451909 -1.7243515 0.51944947 4283386952
3.2452276 -1.6870044 0.51944959 4283321159
3.2452826 -1.6309837 0.51944983 4283255366
3.2453377 -1.5749631 0.51945007 4283386952
3.245374 -1.537616 0.51945019 4283255366
3.2464287 -1.4820569 0.51919985 4283321416
3.2464838 -1.4260187 0.51920003 4283386952
3.2465205 -1.38866 0.51920027 4283321159
3.2465756 -1.3326219 0.51920044 4283386952
3.2466307 -1.2765838 0.51920062 4283452745
3.2466676 -1.239225 0.51920074 4283386952
3.2467225 -1.1831867 0.51920098 4283321159
3.2467778 -1.1271486 0.51920122 4283387208
3.2468145 -1.0897901 0.51920134 4283386951
3.2478693 -1.0340734 0.51895082 4283452744
3.2479246 -0.97801769 0.51895118 4283386952
3.2479794 -0.92196208 0.5189513 4283452745
3.2480342 -0.86590642 0.51895154 4283386952
3.248071 -0.82853609 0.51895165 4283584331
3.2481265 -0.77248049 0.51895189 4283386951
3.2481813 -0.71642482 0.51895213 4283518537
3.2482181 -0.67905444 0.51895225 4283452744
3.2492552 -0.64188319 0.51870167 4283452745
1.7415786 -0.31187087 0.52033293 4282992195
1.7416176 -0.27226248 0.52033305 4282926659
1.7416662 -0.22275183 0.52033323 4282992452
1.7417147 -0.17324129 0.52033341 4282992452
1.7417636 -0.12373075 0.52033359 4282926659
1.7418122 -0.074220195 0.52033383 4282926402
1.7418609 -0.024709661 0.52033395 4282992452
1.7419095 0.024800885 0.52033418 4282926402
1.7427106 0.076825537 0.52741128 4282992195
1.7430067 0.12389673 0.52977043 4283057988
1.7430553 0.17343639 0.52977061 4283058244
1.7431041 0.2229761 0.52977079 4283057987
1.743153 0.2725158 0.52977097 4283058244
1.7432016 0.32205546 0.52977115 4283123780
1.7432504 0.37159508 0.52977133 4283189573
1.743299 0.42113486 0.52977163 4283189830
1.7436812 0.47077131 0.52961636 4283255366
1.7443968 0.52052206 0.52930564 4283189830
1.7444453 0.57009083 0.52930582 4283255623
1.7444943 0.61965978 0.52930599 4283189573
1.7445431 0.66922861 0.52930623 4283321159
1.7445916 0.71879739 0.52930635 4283255366
1.7446405 0.76836628 0.52930659 4283321415
1.7446989 0.82784885 0.52930683 4283452744
1.7447476 0.87741768 0.52930695 4283452745
1.7454634 0.92735499 0.52899635 4283452744
1.7458457 0.97713131 0.5288412 4283518538
1.7458943 1.0267292 0.52884138 4283452744
1.7459432 1.0763273 0.52884156 4283584330
1.7459921 1.1259252 0.52884173 4283518537
1.7460309 1.1656035 0.52884191 4283650124
3.2436948 -2.2278428 0.57570153 4283321159
3.2437499 -2.1718397 0.57570171 4283255622
3.2437866 -2.1345041 0.57570183 4283189572
3.2438416 -2.0785012 0.57570207 4283584330
3.2438967 -2.0224979 0.57570231 4283650124
3.2439334 -1.9851626 0.57570243 4283584331
3.2444882 -1.9294572 0.57558602 4283452745
3.245043 -1.8737403 0.57546961 4283255366
3.2450798 -1.8363932 0.57546985 4283518538
3.2451348 -1.7803725 0.57547003 4283387208
3.2451901 -1.7243519 0.57547021 4283452744
3.2452269 -1.6870047 0.57547033 4283518537
3.2452819 -1.6309839 0.57547057 4283650124
3.245337 -1.5749635 0.57547081 4283518538
3.2453735 -1.5376164 0.57547092 4283321159
3.2464283 -1.4820571 0.57523793 4283584330
3.2464833 -1.426019 0.57523811 4283518537
3.24652 -1.3886602 0.57523835 4283452744
3.2465751 -1.3326222 0.57523853 4283584330
3.2466302 -1.276584 0.5752387 4283650123
3.2466669 -1.2392253 0.57523882 4283386952
3.246722 -1.1831871 0.57523906 4283584588
3.2467771 -1.127149 0.5752393 4283584074
3.2468138 -1.0897903 0.57523942 4283518537
3.2478685 -1.0340736 0.57500648 4283650123
3.2479239 -0.97801793 0.57500678 4283452744
3.2479789 -0.92196232 0.57500696 4283518537
3.2480338 -0.86590666 0.57500714 4283452745
3.2480705 -0.82853627 0.57500726 4283979089
3.2481258 -0.77248073 0.5750075 4283978576
3.2481809 -0.71642506 0.57500774 4283715916
3.2482176 -0.67905468 0.57500786 4283781709
3.2492545 -0.64188337 0.5747748 4283715916
1.7415781 -0.31187108 0.56984359 4283255367
1.7416172 -0.27226263 0.56984359 4283124037
1.7416657 -0.22275202 0.56984389 4283189574
1.7417144 -0.17324148 0.56984401 4283189574
1.741763 -0.12373094 0.56984425 4283189574
1.7418116 -0.074220382 0.56984442 4283189574
1.7418604 -0.024709845 0.56984454 4283123781
1.741909 0.024800697 0.56984478 4283255367
1.7425264 0.071511455 0.57525355 4283124037
1.7430063 0.12389653 0.57931018 4283255623
1.743055 0.17343619 0.57931036 4283124037
1.7431037 0.22297592 0.57931054 4283189573
1.7431524 0.27251559 0.57931072 4283255623
1.7432011 0.32205528 0.57931095 4283255366
1.7432498 0.37159491 0.57931107 4283321159
1.7432986 0.42113465 0.57931131 4283452745
1.7433473 0.47067434 0.57931149 4283386952
1.7443963 0.52052188 0.57887453 4283518537
1.7444451 0.57009065 0.57887471 4283518538
1.7444938 0.6196596 0.57887489 4283452745
1.7445427 0.66922837 0.57887512 4283452744
1.7445912 0.71879721 0.57887524 4283518538
1.7446399 0.76836604 0.57887548 4283650123
1.7446985 0.82784861 0.57887572 4283650123
1.7447473 0.87741745 0.57887584 4283584331
1.7454629 0.92735481 0.57858461 4283650123
1.7458452 0.97713101 0.57843912 4283715916
1.745894 1.0267292 0.5784393 4283715660
1.7459427 1.0763271 0.57843947 4283715916
1.7459915 1.1259249 0.57843965 4283715916
1.7460304 1.1656034 0.57843983 4283847502
3.2436948 -2.2278433 0.61303693 4283584331
3.2437496 -2.17184 0.61303711 4283650124
3.2437863 -2.1345043 0.61303723 4283650123
3.2438414 -2.0785012 0.61303747 4283781709
3.2438965 -2.0224981 0.61303771 4283321158
3.2439332 -1.9851627 0.61303782 4283913295
3.244488 -1.9294572 0.61292726 4283650124
3.2450428 -1.8737404 0.61281669 4283715917
3.2450795 -1.8363934 0.61281693 4283518538
3.2451346 -1.7803726 0.61281711 4283584330
3.2451899 -1.724352 0.61281729 4283650123
3.2452266 -1.6870048 0.61281741 4283715916
3.2452817 -1.6309842 0.61281765 4283584330
3.2453368 -1.5749636 0.61281788 4283847246
3.2453732 -1.5376165 0.612818 4283650124
3.2461007 -1.475675 0.6251235 4283781453
3.2464828 -1.4260192 0.63127631 4283584074
3.2465196 -1.3886604 0.63127655 4283913295
3.2465746 -1.3326224 0.63127673 4283781709
3.2466297 -1.2765843 0.63127691 4283715916
3.2466664 -1.2392255 0.63127702 4283913295
3.2467215 -1.1831872 0.63127726 4283781452
3.2467766 -1.1271491 0.6312775 4283913039
3.2468133 -1.0897906 0.63127762 4283847246
3.2478681 -1.0340737 0.63106215 4283847502
3.2479234 -0.97801816 0.63106245 4283781709
3.2479784 -0.92196256 0.63106263 4283913295
3.2480333 -0.86590689 0.63106281 4283913295
3.24807 -0.82853645 0.63106292 4283913038
3.2481253 -0.77248096 0.63106316 4283913038
3.2481804 -0.7164253 0.6310634 4284307796
3.2482171 -0.67905492 0.63106352 4283781709
3.248754 -0.64178401 0.63095289 4283913295
1.7415775 -0.31187126 0.62925619 4283452745
1.7416165 -0.27226287 0.62925631 4283386952
1.7416652 -0.22275223 0.62925649 4283386952
1.7417138 -0.1732417 0.62925667 4283386952
1.7417625 -0.12373114 0.62925696 4283452745
1.7418112 -0.074220605 0.62925702 4283453002
1.7418599 -0.024710065 0.6292572 4283386952
1.7419086 0.024800479 0.62925744 4283452745
1.7425127 0.074340269 0.62902963 4283321159
1.7430058 0.12389635 0.62884992 4283452745
1.7430546 0.17343602 0.6288501 4283386952
1.7431033 0.22297573 0.62885022 4283452745
1.7431519 0.27251542 0.6288504 4283452745
1.7432007 0.32205513 0.62885064 4283518538
1.7432494 0.37159476 0.62885082 4283584331
1.7432982 0.4211345 0.628851 4283518793
1.7433469 0.4706741 0.62885118 4283518538
1.7443959 0.5205217 0.62844336 4283584330
1.7444445 0.57009047 0.62844348 4283650123
1.7444935 0.61965942 0.62844366 4283715660
1.7445421 0.66922826 0.62844396 4283650123
1.7445909 0.71879703 0.62844408 4283715660
1.7446395 0.76836586 0.62844431 4283781709
1.744698 0.82784843 0.62844449 4283781709
1.7447468 0.87741727 0.62844461 4283715916
1.7452401 0.92723298 0.62826228 4283847502
1.7458447 0.97713095 0.62803715 4283847245
1.7458935 1.026729 0.62803727 4283913295
1.7459422 1.076327 0.62803751 4283847502
1.7459911 1.1259248 0.62803769 4283847502
1.7460301 1.1656032 0.62803787 4284044880
3.2436941 -2.2278433 0.6690402 4283650123
3.2437491 -2.1718402 0.66904032 4283781453
3.2437859 -2.1345043 0.66904044 4283649867
3.2438409 -2.0785015 0.66904074 4283715916
3.243896 -2.0224981 0.66904092 4283913295
3.2439327 -1.985163 0.66904104 4283781709
3.2444875 -1.9294574 0.66893923 4283847502
3.2450423 -1.8737406 0.66883743 4283913038
3.245079 -1.8363935 0.66883767 4283715660
3.2451341 -1.7803727 0.66883779 4283847246
3.2451894 -1.7243522 0.66883802 4283781709
3.2452261 -1.6870049 0.66883814 4283847502
3.245281 -1.6309843 0.66883832 4283781709
3.2453363 -1.5749638 0.66883862 4283847502
3.2453725 -1.5376167 0.66883874 4283715659
3.245755 -1.4879724 0.67499733 4283978831
3.2464824 -1.4260193 0.68731445 4284110417
3.2465191 -1.3886606 0.68731469 4284110417
3.2465742 -1.3326225 0.68731487 4283979087
3.2466292 -1.2765844 0.68731505 4283847502
3.246666 -1.2392256 0.68731517 4284044881
3.246721 -1.1831874 0.6873154 4283978831
3.2467761 -1.1271493 0.68731564 4284176210
3.2468128 -1.0897907 0.68731576 4283715660
3.2478676 -1.0340739 0.68711782 4284110417
3.2479229 -0.97801834 0.68711811 4284110673
3.247978 -0.92196274 0.68711829 4283979087
3.2480328 -0.86590707 0.68711847 4284176210
3.2480695 -0.82853669 0.68711859 4284242003
3.2481248 -0.77248114 0.68711883 4284044624
3.2481799 -0.71642548 0.68711907 4283912782
3.2482166 -0.67905509 0.68711919 4284242003
3.2482533 -0.64168465 0.68711931 4284044880
1.741577 -0.31187147 0.67876673 4283584331
1.7416161 -0.27226305 0.67876691 4283584331
1.7416648 -0.22275242 0.67876714 4283584331
1.7417134 -0.1732419 0.67876726 4283650124
1.741762 -0.12373134 0.6787675 4283584331
1.7418107 -0.074220791 0.67876768 4283649867
1.7418594 -0.024710249 0.67876786 4283518538
1.741908 0.024800295 0.67876804 4283715917
1.7422901 0.074329942 0.67864197 4283518538
1.7430055 0.12389617 0.67838955 4283650124
1.743054 0.17343582 0.67838979 4283584331
1.7431029 0.22297555 0.67838991 4283584331
1.7431515 0.27251524 0.6783902 4283650123
1.7432003 0.32205489 0.67839032 4283781709
1.7432491 0.37159455 0.6783905 4283715916
1.7432977 0.42113426 0.67839068 4283650123
1.7433465 0.47067395 0.6783908 4283715916
1.7443954 0.52052158 0.67801219 4283847502
1.7444441 0.57009029 0.67801243 4283913038
1.7444929 0.61965913 0.67801255 4283847246
1.7445416 0.66922808 0.67801285 4283847502
1.7445903 0.71879685 0.67801291 4283847245
1.7446389 0.76836562 0.67801315 4283913294
1.7446976 0.82784832 0.67801338 4283913039
1.7447462 0.87741715 0.6780135 4283847245
1.7451285 0.92717224 0.67788744 4283979087
1.7458442 0.97713071 0.67763513 4284110160
1.745893 1.0267289 0.67763525 4284044624
1.7459419 1.0763267 0.67763549 4284110417
1.7459906 1.1259247 0.67763567 4284110417
1.7460296 1.1656029 0.67763585 4284242259
3.2436938 -2.2278438 0.72504336 4283978831
3.2437487 -2.1718404 0.72504354 4283978831
3.2437854 -2.1345048 0.72504365 4284242003
3.2438405 -2.0785017 0.72504389 4283978831
3.2438955 -2.0224986 0.72504413 4283979087
3.2439322 -1.9851631 0.72504425 4283847502
3.244487 -1.9294577 0.72495115 4284110673
3.2450418 -1.8737408 0.72485805 4284176210
3.2450786 -1.8363937 0.72485828 4283978831
3.2451336 -1.780373 0.72485846 4284044624
3.245189 -1.7243524 0.72485864 4283978831
3.2452257 -1.6870052 0.72485876 4284110673
3.2452807 -1.6309844 0.724859 4284044880
3.2453358 -1.5749639 0.72485924 4283781708
3.2453723 -1.5376168 0.72485936 4284110417
3.2459271 -1.4818239 0.72476625 4284176210
3.2464821 -1.4260194 0.72467321 4284307796
3.2465189 -1.3886607 0.72467345 4284044624
3.2465739 -1.3326226 0.72467363 4284176210
3.246629 -1.2765845 0.72467381 4284176209
3.2466657 -1.2392257 0.72467393 4284242002
3.2467208 -1.1831876 0.72467417 4284110416
3.2467759 -1.1271495 0.7246744 4283978831
3.2468126 -1.0897908 0.72467452 4283978831
3.2478673 -1.0340741 0.72448826 4284242003
3.2479227 -0.97801846 0.72448856 4284110673
3.2479775 -0.92196286 0.72448874 4284242259
3.2480326 -0.86590719 0.72448891 4284373588
3.2480693 -0.82853681 0.72448903 4284373588
3.2481246 -0.77248126 0.72448927 4284307795
3.2481797 -0.7164256 0.72448951 4284307796
3.2482164 -0.67905521 0.72448963 4284242003
3.2482531 -0.64168477 0.72448975 4284176210
1.7415767 -0.31187162 0.72827739 4283781709
1.7416155 -0.2722632 0.72827744 4283847502
1.7416643 -0.2227526 0.72827774 4283847246
1.7417128 -0.17324208 0.72827774 4283781709
1.7417616 -0.12373153 0.72827804 4283715916
1.7418103 -0.074220978 0.72827834 4283781709
1.741859 -0.024710435 0.7282784 4283913039
1.7419076 0.024800111 0.72827864 4283781709
1.7422895 0.074329756 0.72816223 4283781709
1.743005 0.123896 0.72792929 4283847246
1.7430537 0.17343564 0.72792953 4283847502
1.7431023 0.22297536 0.72792965 4283781709
1.7431509 0.27251503 0.72792983 4283847502
1.7431997 0.32205471 0.72793007 4283847502
1.7432485 0.37159437 0.72793019 4283913295
1.7432972 0.42113408 0.72793037 4283847245
1.743346 0.47067374 0.72793061 4283913038
1.7438947 0.5203703 0.72775596 4283979087
1.7444437 0.57009017 0.72758126 4283978831
1.7444925 0.61965895 0.72758144 4284044624
1.7445413 0.66922784 0.72758168 4283979087
1.7445899 0.71879667 0.7275818 4284044624
1.7446387 0.7683655 0.72758204 4284044624
1.7446972 0.82784808 0.72758228 4284242003
1.7447459 0.87741685 0.7275824 4284176210
1.745128 0.92717183 0.72746605 4284110416
1.7458438 0.97713053 0.72723311 4284176210
1.7458925 1.0267286 0.72723329 4284242003
1.7459414 1.0763266 0.72723347 4284176209
1.7459902 1.1259245 0.72723365 4284307795
1.7460291 1.1656027 0.72723383 4284373588
3.2436931 -2.2278438 0.78104651 4284176210
3.2437482 -2.1718407 0.78104663 4284176209
3.2437849 -2.1345048 0.78104675 4284242002
3.2438397 -2.0785019 0.78104699 4284176210
3.2438951 -2.0224986 0.78104722 4284176466
3.2439318 -1.9851633 0.78104734 4284242259
3.2439866 -1.9291601 0.78104758 4284307795
3.2450414 -1.873741 0.78087866 4284242002
3.2450781 -1.836394 0.7808789 4284307795
3.2451329 -1.7803732 0.78087914 4284242002
3.2451885 -1.7243526 0.78087926 4284307796
3.2452252 -1.6870054 0.78087938 4284307796
3.2452803 -1.6309847 0.78087962 4284176466
3.2453353 -1.5749642 0.78087986 4284373588
3.2453716 -1.5376171 0.78087997 4284307795
3.2459264 -1.4818242 0.78079569 4284307795
3.2464814 -1.4260197 0.78071141 4284307795
3.2465181 -1.3886609 0.78071165 4284307795
3.2465732 -1.3326229 0.78071189 4284176466
3.2466283 -1.2765847 0.78071201 4284505174
3.2466652 -1.239226 0.78071213 4284439124
3.2467203 -1.1831878 0.78071237 4284307795
3.2467754 -1.1271497 0.7807126 4284505174
3.2468121 -1.0897911 0.78071272 4284439381
3.2473671 -1.0339106 0.78062838 4284307796
3.2479222 -0.9780187 0.78054416 4284373588
3.247977 -0.92196304 0.78054428 4284504917
3.2480319 -0.86590743 0.78054452 4284373588
3.2480686 -0.82853705 0.78054464 4284373588
3.2481239 -0.77248144 0.78054488 4284439381
3.248179 -0.71642584 0.78054512 4284373588
3.2482157 -0.67905545 0.78054523 4284439638
3.2482524 -0.64168501 0.78054535 4284570967
1.7415762 -0.31187183 0.77778786 4284110417
1.7416152 -0.27226344 0.77778804 4283913039
1.7416638 -0.22275281 0.77778822 4284044881
1.7417125 -0.17324226 0.7777884 4283979088
1.7417611 -0.12373172 0.77778858 4284044881
1.7418098 -0.074221164 0.77778876 4283978831
1.7418585 -0.02471062 0.77778894 4283979088
1.7419071 0.024799924 0.77778912 4283978831
1.7421225 0.074320026 0.77773494 4283978831
1.7430046 0.1238958 0.77746898 4284044624
1.7430533 0.17343546 0.77746916 4284044881
1.743102 0.22297518 0.77746934 4283979088
1.7431506 0.27251488 0.77746958 4284044624
1.7431993 0.32205456 0.77746975 4283978831
1.743248 0.37159416 0.77746987 4284044880
1.7432967 0.42113391 0.77747011 4284176209
1.7433455 0.47067356 0.77747029 4284110417
1.7438943 0.52037013 0.77731019 4284110416
1.7444432 0.57008994 0.77715015 4284176210
1.7444921 0.61965883 0.77715033 4284242003
1.7445408 0.66922766 0.77715045 4284176209
1.7445894 0.71879649 0.77715069 4284307539
1.7446382 0.76836532 0.77715087 4284242259
1.7446969 0.8278479 0.77715111 4284307795
1.7447454 0.87741679 0.77715129 4284373589
1.744794 0.92698562 0.77715141 4284439381
1.7458434 0.97713035 0.77683109 4284307795
1.7458922 1.0267283 0.77683133 4284439381
1.7459409 1.0763264 0.77683151 4284505174
1.7459897 1.1259242 0.77683163 4284439124
1.7460287 1.1656026 0.77683181 4284637016
3.2436924 -2.2278438 0.83704972 4284373588
3.2437475 -2.1718407 0.8370499 4284242002
3.2437842 -2.134505 0.83705002 4284307795
3.2438393 -2.0785022 0.83705026 4284439381
3.2438943 -2.0224988 0.8370505 4284439381
3.2439311 -1.9851636 0.83705062 4284373589
3.2439861 -1.9291604 0.8370508 4284373588
3.2450407 -1.8737413 0.8368994 4284373588
3.2450774 -1.8363942 0.83689964 4284636760
3.2451324 -1.7803735 0.83689982 4284439381
3.2451878 -1.7243528 0.8369 4284439381
3.2452245 -1.6870056 0.83690012 4284373588
3.2452796 -1.6309849 0.83690035 4284373587
3.2453346 -1.5749644 0.83690059 4284570967
3.2453711 -1.5376173 0.83690071 4284570967
3.2459259 -1.4818244 0.83682513 4284439381
3.2464809 -1.4260199 0.83674955 4284373588
3.2465177 -1.3886611 0.83674979 4284505174
3.2465727 -1.3326231 0.83674997 4284439381
3.2466278 -1.276585 0.83675015 4284439124
3.2466645 -1.2392262 0.83675027 4284570966
3.2467196 -1.1831881 0.83675051 4284571223
3.2467747 -1.1271499 0.83675075 4284636760
3.2468114 -1.0897913 0.83675086 4284570967
3.2473664 -1.0339109 0.83667529 4284439381
3.2479215 -0.97801894 0.83659983 4284570967
3.2479765 -0.92196333 0.83660001 4284505173
3.2480314 -0.86590767 0.83660018 4284636759
3.2480681 -0.82853729 0.8366003 4284768345
3.2481234 -0.77248174 0.83660054 4284570967
3.2481785 -0.71642607 0.83660078 4284570967
3.2482152 -0.67905569 0.8366009 4284768346
3.2482519 -0.64168525 0.83660102 4284768089
1.7415757 -0.31187201 0.82729846 4284242003
1.7416148 -0.27226359 0.82729858 4284176210
1.7416633 -0.22275299 0.82729882 4284242259
1.741712 -0.17324245 0.82729894 4284176466
1.7417607 -0.1237319 0.82729912 4284242003
1.7418094 -0.074221343 0.82729936 4284176210
1.741858 -0.024710804 0.82729954 4284242003
1.7419066 0.024799738 0.82729977 4284176210
1.7419555 0.07431028 0.82729989 4284242003
1.7430042 0.12389562 0.82700872 4284176209
1.743053 0.17343529 0.8270089 4284176210
1.7431014 0.222975 0.82700902 4284242003
1.7431501 0.27251467 0.8270092 4284242003
1.7431989 0.32205436 0.82700944 4284307796
1.7432476 0.37159398 0.82700962 4284307795
1.7432964 0.42113373 0.82700974 4284307795
1.743345 0.47067335 0.82700998 4284307796
1.7437272 0.52031767 0.82691115 4284439380
1.7444428 0.57008976 0.82671899 4284373588
1.7444917 0.61965859 0.82671911 4284439381
1.7445403 0.66922742 0.8267194 4284373588
1.744589 0.71879625 0.82671952 4284439381
1.7446377 0.76836514 0.82671976 4284505174
1.7446964 0.82784772 0.82671994 4284505174
1.7447451 0.87741655 0.82672006 4284505173
1.7447935 0.92698532 0.82672036 4284505174
1.7458429 0.97713006 0.82642919 4284636759
1.7458917 1.0267282 0.82642925 4284570966
1.7459404 1.0763261 0.82642955 4284570967
1.7459892 1.1259241 0.82642961 4284636759
1.7460282 1.1656024 0.82642984 4284570966
3.2436924 -2.2278442 0.87438518 4284636760
3.2437472 -2.1718409 0.87438536 4284505174
3.243784 -2.1345053 0.87438548 4284373588
3.243839 -2.0785022 0.87438571 4284570967
3.2438941 -2.0224991 0.87438595 4284570967
3.2439308 -1.9851637 0.87438607 4284504917
3.2439859 -1.9291605 0.87438625 4284768345
3.2450404 -1.8737414 0.87424648 4284570967
3.2450771 -1.8363943 0.87424672 4284373588
3.2451322 -1.7803736 0.8742469 4284505174
3.2451875 -1.724353 0.87424707 4284636760
3.2452242 -1.6870058 0.87424719 4284505174
3.2452793 -1.6309851 0.87424743 4284636503
3.2453344 -1.5749645 0.87424767 4284702552
3.2453709 -1.5376174 0.87424779 4284834138
3.2454259 -1.4815967 0.87424797 4284505174
3.2464807 -1.42602 0.87410831 4284636760
3.2465174 -1.3886613 0.87410855 4284833883
3.2465725 -1.3326232 0.87410873 4284636503
3.2466276 -1.2765851 0.87410891 4284768089
3.2466643 -1.2392263 0.87410903 4284570710
3.2467194 -1.1831881 0.87410927 4284702552
3.2467744 -1.1271501 0.87410951 4284702552
3.2468112 -1.0897914 0.87410963 4284965724
3.2473662 -1.033911 0.87403989 4284702553
3.2479212 -0.97801906 0.87397027 4284833882
3.2479761 -0.92196345 0.87397045 4284833882
3.2480311 -0.86590779 0.87397063 4284636759
3.2480679 -0.8285374 0.87397075 4284899931
3.2481232 -0.77248186 0.87397099 4284834138
3.2481782 -0.71642619 0.87397122 4284834138
3.248215 -0.67905581 0.87397134 4284702552
3.2482517 -0.64168537 0.87397146 4285031261
1.7410753 -0.31177843 0.87694025 4284505174
1.7416142 -0.2722638 0.87680918 4284505174
1.7416629 -0.22275317 0.87680942 4284439381
1.7417115 -0.17324264 0.8768096 4284505174
1.7417601 -0.12373208 0.87680966 4284373588
1.741809 -0.074221529 0.87680995 4284439381
1.7418575 -0.024710989 0.87681013 4284505174
1.7419063 0.024799556 0.87681031 4284439381
1.741955 0.074310102 0.87681049 4284505174
1.7430036 0.12389543 0.87654841 4284505174
1.7430524 0.17343509 0.87654859 4284439381
1.7431011 0.22297479 0.87654877 4284439381
1.7431496 0.27251449 0.87654901 4284505174
1.7431985 0.32205415 0.87654912 4284439381
1.7432472 0.37159383 0.87654942 4284439381
1.7432959 0.42113355 0.87654948 4284373588
1.7433445 0.47067323 0.87654972 4284505173
1.7433934 0.52021289 0.87654996 4284439381
1.7444423 0.57008964 0.87628776 4284505174
1.7444911 0.61965841 0.87628794 4284570710
1.7445399 0.66922724 0.87628818 4284636760
1.7445885 0.71879613 0.87628835 4284636760
1.7446373 0.76836497 0.87628859 4284570966
1.7446959 0.82784748 0.87628889 4284702296
1.7447445 0.87741643 0.87628895 4284636759
1.7447932 0.9269852 0.87628919 4284702553
1.7458426 0.97712994 0.87602711 4284702296
1.7458912 1.0267279 0.87602729 4284834138
1.7459401 1.076326 0.87602746 4284768089
1.7459887 1.1259238 0.87602758 4284833882
1.7460277 1.1656022 0.87602782 4284834139
3.2436914 -2.2278442 0.93038833 4284636759
3.2437468 -2.1718411 0.93038851 4284702552
3.2437835 -2.1345055 0.93038863 4284636759
3.2438385 -2.0785027 0.93038887 4284702552
3.2438936 -2.0224993 0.93038911 4284702553
3.2439303 -1.9851639 0.93038923 4284768089
3.2439854 -1.9291606 0.9303894 4284833882
3.2450399 -1.8737415 0.93026721 4284702296
3.2450767 -1.8363944 0.93026745 4284834138
3.2451317 -1.7803738 0.93026763 4284702552
3.245187 -1.7243532 0.93026781 4284768346
3.2452238 -1.6870059 0.93026793 4284768345
3.2452786 -1.6309851 0.93026817 4284899675
3.2453339 -1.5749648 0.93026841 4284833882
3.2453701 -1.5376177 0.93026853 4284833882
3.2454255 -1.4815969 0.93026865 4284834138
3.24648 -1.4260201 0.93014646 4284899931
3.2465167 -1.3886614 0.93014669 4284965724
3.246572 -1.3326235 0.93014687 4284965467
3.2466269 -1.2765852 0.93014705 4285031260
3.2466638 -1.2392265 0.93014717 4284965467
3.2467186 -1.1831883 0.93014741 4284899931
3.246774 -1.1271503 0.93014765 4284899931
3.2468107 -1.0897915 0.93014777 4284899931
3.2473657 -1.0339112 0.93008673 4284965467
3.2479208 -0.97801924 0.93002582 4284899674
3.2479758 -0.92196363 0.93002599 4284833882
3.2480304 -0.86590797 0.93002617 4284833881
3.2480671 -0.82853764 0.93002629 4284965468
3.2481225 -0.77248204 0.93002653 4284965724
3.2481775 -0.71642637 0.93002677 4284965467
3.2482142 -0.67905599 0.93002689 4285097053
3.248251 -0.64168555 0.93002701 4285162846
1.7410749 -0.31177863 0.92643619 4284505174
1.7416136 -0.27226394 0.92631978 4284636503
1.7416625 -0.22275336 0.92631996 4284570967
1.741711 -0.17324284 0.92632008 4284636760
1.7417599 -0.12373228 0.92632037 4284636760
1.7418085 -0.074221715 0.92632055 4284702296
1.7418571 -0.024711177 0.92632073 4284636503
1.7419058 0.024799371 0.92632085 4284570967
1.7419544 0.074309915 0.92632115 4284636503
1.7426698 0.12387226 0.92616385 4284636760
1.7430519 0.1734349 0.92608833 4284636760
1.7431006 0.22297461 0.92608851 4284702296
1.7431494 0.27251428 0.92608863 4284636760
1.7431979 0.32205397 0.92608887 4284636760
1.7432468 0.37159362 0.92608905 4284636503
1.7432954 0.42113337 0.92608929 4284570967
1.7433441 0.47067299 0.92608953 4284702552
1.7433928 0.52021277 0.92608958 4284636759
1.7444417 0.57008946 0.92585671 4284768089
1.7444906 0.61965823 0.92585689 4284636759
1.7445395 0.66922718 0.92585713 4284834138
1.7445881 0.71879596 0.92585725 4284768089
1.744637 0.76836479 0.92585742 4284899674
1.7446953 0.82784736 0.92585766 4284768345
1.7447442 0.87741613 0.92585778 4284834138
1.7447928 0.92698503 0.92585796 4284965467
1.7453419 0.97684473 0.92574149 4285031260
1.7458907 1.0267278 0.92562526 4284965724
1.7459395 1.0763258 0.9256255 4284965467
1.7459882 1.1259236 0.92562556 4285031517
1.7460272 1.1656021 0.9256258 4285162846
3.2436914 -2.2278447 0.98639154 4284768089
3.2437463 -2.1718414 0.98639172 4284965724
3.243783 -2.1345057 0.98639184 4284834138
3.2438381 -2.0785027 0.98639208 4284899931
3.2438931 -2.0224996 0.98639232 4284899674
3.2439299 -1.985164 0.98639244 4284965467
3.2439849 -1.9291608 0.98639262 4284965467
3.2450395 -1.8737417 0.98628783 4284965468
3.2450762 -1.8363947 0.98628807 4284965724
3.2451313 -1.7803739 0.98628825 4285031517
3.2451866 -1.7243533 0.98628843 4285097053
3.2452233 -1.6870061 0.98628855 4284965467
3.2452784 -1.6309854 0.98628879 4285097053
3.2453334 -1.5749649 0.98628902 4285031260
3.2453699 -1.5376178 0.98628914 4285162846
3.245425 -1.4815971 0.98628932 4284965468
3.2464797 -1.4260204 0.9861846 4285031517
3.2465165 -1.3886616 0.98618484 4285162846
3.2465715 -1.3326236 0.98618501 4284965467
3.2466266 -1.2765855 0.98618519 4285097053
3.2466633 -1.2392267 0.98618531 4285097053
3.2467184 -1.1831886 0.98618555 4285031260
3.2467735 -1.1271504 0.98618579 4284899930
3.2468102 -1.0897918 0.98618591 4284965724
3.2473652 -1.0339113 0.98613364 4285162846
3.2479203 -0.97801948 0.98608148 4285031260
3.2479751 -0.92196387 0.98608166 4285097053
3.2480302 -0.86590821 0.98608184 4285360225
3.2480669 -0.82853782 0.98608196 4285294432
3.2481222 -0.77248228 0.9860822 4285097053
3.2481773 -0.71642661 0.98608243 4285360224
3.248214 -0.67905623 0.98608255 4285097053
3.2482507 -0.64168578 0.98608267 4285228639
1.7410744 -0.31177881 0.97593218 4284768089
1.7416134 -0.27226415 0.97583032 4284833882
1.7416619 -0.22275354 0.97583055 4284833882
1.7417107 -0.173243 0.97583067 4284768089
1.7417593 -0.12373246 0.97583097 4284833882
1.7418081 -0.074221902 0.97583109 4284768089
1.7418567 -0.024711361 0.97583121 4284833882
1.7419053 0.024799187 0.97583145 4284833882
1.7419541 0.074309729 0.97583169 4284833882
1.7425027 0.12386059 0.97572982 4284899675
1.7430514 0.17343473 0.97562808 4284833882
1.7431002 0.22297445 0.9756282 4284768090
1.7431489 0.2725141 0.97562838 4284833882
1.7431976 0.32205379 0.97562861 4284833882
1.7432462 0.37159345 0.97562867 4284833882
1.7432951 0.42113316 0.97562897 4284768089
1.7433436 0.47067288 0.97562915 4284834138
1.7433925 0.52021253 0.97562933 4284965724
1.7442749 0.57003498 0.97545856 4284965468
1.7444903 0.61965805 0.97542566 4284965724
1.744539 0.66922694 0.97542596 4285031260
1.7445877 0.71879578 0.97542608 4285031260
1.7446364 0.76836461 0.97542626 4285031261
1.7446951 0.82784712 0.9754265 4285097053
1.7447436 0.87741596 0.97542667 4285031517
1.7447922 0.92698479 0.97542691 4285162846
1.7453414 0.97684449 0.97532499 4285162590
1.7458903 1.0267277 0.97522324 4285097309
1.7459391 1.0763257 0.97522354 4285097053
1.7459879 1.1259235 0.9752236 4285228639
1.7460269 1.1656018 0.97522384 4285360225
3.243691 -2.2278447 1.0237269 4285031517
3.2437458 -2.1718414 1.0237272 4284965724
3.2437825 -2.1345057 1.0237273 4284965724
3.2438376 -2.0785027 1.0237275 4284965467
3.2438927 -2.0224996 1.0237278 4285294432
3.2439294 -1.9851643 1.0237279 4284899674
3.2439845 -1.9291611 1.0237281 4285097053
3.2440393 -1.8731581 1.0237283 4284965467
3.2450757 -1.8363949 1.0236351 4285097053
3.2451308 -1.7803742 1.0236354 4285031260
3.2451861 -1.7243536 1.0236356 4285162846
3.2452228 -1.6870064 1.0236356 4285097053
3.2452779 -1.6309856 1.023636 4285097053
3.245333 -1.5749651 1.0236361 4285097053
3.2453694 -1.537618 1.0236363 4285228639
3.2454245 -1.4815973 1.0236365 4285162846
3.2464793 -1.4260206 1.0235434 4285162845
3.246516 -1.3886619 1.0235436 4285228639
3.2465711 -1.3326238 1.0235438 4285097053
3.2466261 -1.2765857 1.023544 4285294432
3.2466629 -1.2392269 1.0235441 4285557604
3.2467179 -1.1831888 1.0235443 4285294432
3.246773 -1.1271507 1.0235445 4285228639
3.2468097 -1.089792 1.0235447 4285294431
3.2468648 -1.0337538 1.0235448 4285294431
3.2479198 -0.9780196 1.0234519 4285557604
3.2479746 -0.92196399 1.023452 4285294432
3.2480297 -0.86590832 1.0234523 4285228639
3.2480664 -0.82853794 1.0234524 4285294432
3.2481217 -0.7724824 1.0234526 4285426017
3.2481768 -0.71642673 1.0234529 4285228382
3.2482135 -0.67905635 1.023453 4285360224
3.2482502 -0.6416859 1.0234531 4285623396
1.740574 -0.31169108 1.0255156 4285162846
1.741613 -0.2722643 1.0253409 4285031260
1.7416615 -0.2227537 1.025341 4285097310
1.7417101 -0.17324319 1.0253412 4285031260
1.7417588 -0.12373264 1.0253415 4285031260
1.7418076 -0.074222088 1.0253416 4285031260
1.7418562 -0.024711544 1.0253417 4285031517
1.7419049 0.024799 1.025342 4285162846
1.7419536 0.074309543 1.0253422 4285031260
1.7425022 0.1238604 1.025255 4285097053
1.7430511 0.17343453 1.0251677 4285097053
1.7430997 0.22297426 1.0251678 4285097053
1.7431486 0.27251393 1.0251679 4285031517
1.7431972 0.32205361 1.0251683 4285031260
1.743246 0.37159327 1.0251685 4285031260
1.7432945 0.42113298 1.0251688 4285097053
1.7433432 0.47067267 1.0251689 4285031517
1.743392 0.52021235 1.025169 4285097053
1.7441075 0.56998062 1.0250525 4285031260
1.74449 0.61965787 1.0249945 4285097053
1.7445385 0.66922671 1.0249947 4285097053
1.7445872 0.71879554 1.0249949 4285162845
1.7446362 0.76836437 1.0249952 4285294175
1.7446945 0.82784694 1.0249953 4285228639
1.7447432 0.87741584 1.0249956 4285294431
1.7447919 0.92698473 1.0249957 4285294432
1.7451743 0.97674739 1.0249356 4285294175
1.74589 1.0267274 1.0248213 4285360224
1.7459387 1.0763255 1.0248213 4285360225
1.7459875 1.1259234 1.0248216 4285491554
1.7460264 1.1656017 1.0248218 4285426017
3.2436905 -2.2278447 1.0797302 4285294431
3.2437453 -2.1718416 1.0797303 4285360224
3.243782 -2.134506 1.0797305 4285360224
3.2438371 -2.0785031 1.0797307 4285294431
3.2438922 -2.0224998 1.079731 4285294431
3.2439289 -1.9851644 1.079731 4285294432
3.243984 -1.9291612 1.0797312 4285162846
3.2440388 -1.8731583 1.0797315 4285294432
3.2450752 -1.8363951 1.0796559 4285162846
3.2451303 -1.7803743 1.079656 4285425761
3.2451856 -1.7243537 1.0796562 4285426017
3.2452223 -1.6870066 1.0796564 4285360224
3.2452774 -1.6309859 1.0796566 4285360225
3.2453325 -1.5749652 1.0796568 4285360225
3.245369 -1.5376182 1.079657 4285360225
3.245424 -1.4815975 1.0796572 4285360225
3.2464788 -1.4260209 1.0795815 4285360224
3.2465155 -1.3886621 1.0795817 4285360224
3.2465706 -1.3326241 1.079582 4285426017
3.2466257 -1.2765859 1.0795822 4285426017
3.2466624 -1.2392272 1.0795822 4285294431
3.2467175 -1.1831889 1.0795826 4285360224
3.2467725 -1.1271508 1.0795827 4285557346
3.2468092 -1.0897923 1.0795829 4285491810
3.2468643 -1.0337539 1.079583 4285360224
3.2479193 -0.97801983 1.0795076 4285491810
3.2479744 -0.92196423 1.0795078 4285491810
3.2480292 -0.86590856 1.0795079 4285426017
3.2480659 -0.82853818 1.0795081 4285557603
3.2481213 -0.77248263 1.0795083 4285557346
3.2481763 -0.71642697 1.0795085 4285623396
3.2482131 -0.67905658 1.0795087 4285557603
3.2482498 -0.64168614 1.0795088 4285491810
1.7405736 -0.31169125 1.0749971 4285228639
1.7416124 -0.27226451 1.0748515 4285162846
1.7416612 -0.2227539 1.0748516 4285228639
1.7417097 -0.17324336 1.0748518 4285228639
1.7417586 -0.12373282 1.074852 4285228639
1.7418071 -0.074222274 1.0748522 4285294432
1.7418557 -0.024711726 1.0748523 4285228639
1.7419044 0.024798816 1.0748526 4285228639
1.7419531 0.074309357 1.0748528 4285228639
1.7420019 0.1238199 1.0748529 4285162846
1.7430507 0.17343436 1.0747075 4285228639
1.7430993 0.22297406 1.0747076 4285228639
1.743148 0.27251372 1.0747077 4285228639
1.7431966 0.32205343 1.074708 4285162846
1.7432455 0.37159309 1.0747082 4285228639
1.7432941 0.4211328 1.0747085 4285228639
1.7433428 0.47067249 1.0747086 4285294432
1.7433915 0.52021217 1.0747087 4285294432
1.744107 0.56998038 1.0746118 4285228638
1.7444893 0.61965775 1.0745634 4285294431
1.7445379 0.66922653 1.0745636 4285360225
1.7445867 0.71879536 1.0745637 4285360224
1.7446356 0.76836419 1.074564 4285360224
1.7446941 0.82784671 1.0745642 4285294431
1.7447429 0.8774156 1.0745642 4285426017
1.7447915 0.92698443 1.0745646 4285491554
1.7448401 0.97655332 1.0745647 4285557347
1.7458895 1.0267272 1.0744194 4285491810
1.7459382 1.0763252 1.0744195 4285557347
1.7459869 1.125923 1.0744195 4285623396
1.746026 1.1656015 1.0744197 4285557603
3.24369 -2.2278452 1.1357334 4285491810
3.2437449 -2.1718419 1.1357336 4285491810
3.2437816 -2.1345062 1.1357336 4285491809
3.2438366 -2.0785031 1.135734 4285491810
3.2438917 -2.0225 1.1357341 4285360224
3.2439284 -1.9851646 1.1357343 4285491810
3.2439835 -1.9291614 1.1357344 4285491810
3.2440383 -1.8731585 1.1357346 4285294431
3.2450747 -1.8363953 1.1356766 4285623139
3.2451298 -1.7803745 1.1356767 4285557347
3.2451851 -1.7243539 1.1356769 4285491810
3.2452219 -1.6870067 1.1356771 4285623396
3.2452769 -1.6309861 1.1356772 4285491810
3.245332 -1.5749655 1.1356776 4285754982
3.2453685 -1.5376184 1.1356776 4285557603
3.2454236 -1.4815977 1.1356778 4285425760
3.2454789 -1.425577 1.1356781 4285557346
3.246515 -1.3886622 1.1356199 4285754726
3.2465701 -1.3326242 1.1356201 4285491810
3.2466252 -1.2765861 1.1356204 4285557603
3.2466619 -1.2392273 1.1356204 4285689189
3.246717 -1.183189 1.1356207 4285689189
3.2467721 -1.127151 1.1356208 4285688932
3.2468088 -1.0897924 1.1356211 4285688932
3.2468638 -1.0337541 1.1356212 4285820518
3.2479188 -0.97802001 1.1355633 4285820775
3.2479737 -0.92196441 1.1355634 4285754982
3.2480288 -0.86590874 1.1355636 4285426017
3.2480655 -0.82853836 1.1355637 4285688932
3.2481208 -0.77248281 1.135564 4285820518
3.2481759 -0.71642715 1.1355642 4285688932
3.2482126 -0.67905676 1.1355643 4285754981
3.2482493 -0.64168632 1.1355644 4285623395
1.740573 -0.31169143 1.1244785 4285426017
1.7414453 -0.27223733 1.1243795 4285491810
1.7416608 -0.22275409 1.1243623 4285491810
1.7417094 -0.17324355 1.1243625 4285491810
1.741758 -0.12373301 1.1243626 4285491554
1.7418066 -0.07422246 1.1243628 4285557347
1.7418553 -0.024711911 1.1243631 4285426017
1.741904 0.024798632 1.1243632 4285491810
1.7419527 0.07430917 1.1243634 4285491810
1.7420014 0.12381974 1.1243635 4285491554
1.7430501 0.17343418 1.1242471 4285491810
1.7430987 0.22297388 1.1242474 4285491810
1.7431475 0.27251354 1.1242476 4285426018
1.7431962 0.32205322 1.1242477 4285360224
1.743245 0.37159285 1.1242479 4285426017
1.7432935 0.42113259 1.124248 4285426018
1.7433424 0.47067231 1.1242481 4285426017
1.743391 0.52021199 1.1242485 4285360224
1.7438843 0.56990528 1.1241955 4285491554
1.7444888 0.61965758 1.1241323 4285426017
1.7445376 0.66922635 1.1241325 4285491810
1.7445862 0.71879524 1.1241328 4285557346
1.744635 0.76836395 1.1241328 4285557603
1.7446936 0.82784659 1.1241331 4285623139
1.7447424 0.87741542 1.1241332 4285557603
1.744791 0.92698425 1.1241336 4285688932
1.7448398 0.97655314 1.1241336 4285689189
1.7458889 1.0267272 1.1240172 4285623396
1.7459377 1.0763251 1.1240176 4285754725
1.7459866 1.1259229 1.1240176 4285754982
1.7460254 1.1656013 1.1240177 4285820518
3.2436895 -2.2278452 1.1730688 4285557346
3.2437446 -2.1718421 1.173069 4285886311
3.2437813 -2.1345065 1.1730691 4285886311
3.2438364 -2.0785036 1.1730694 4285688932
3.2438915 -2.0225003 1.1730696 4285820518
3.2439282 -1.9851648 1.1730697 4285820518
3.2439833 -1.9291615 1.17307 4285623139
3.2440381 -1.8731586 1.1730701 4285688932
3.2450745 -1.8363954 1.1730237 4285820518
3.2451296 -1.7803746 1.1730239 4285688932
3.2451849 -1.724354 1.1730241 4285491552
3.2452216 -1.6870068 1.1730242 4285754981
3.2452767 -1.6309861 1.1730244 4285557603
3.2453318 -1.5749656 1.1730247 4285689189
3.2453682 -1.5376185 1.1730248 4285557603
3.2454233 -1.4815978 1.1730249 4285820518
3.2454786 -1.4255772 1.1730251 4285623139
3.2465148 -1.3886623 1.1729788 4285557346
3.2465699 -1.3326243 1.1729789 4285754981
3.2466249 -1.2765862 1.1729791 4285886568
3.2466617 -1.2392274 1.1729792 4285754982
3.2467167 -1.1831893 1.1729795 4285754725
3.2467718 -1.1271511 1.1729797 4285886311
3.2468085 -1.0897925 1.1729798 4285886568
3.2468636 -1.0337542 1.1729801 4285820518
3.2479186 -0.97802019 1.1729337 4285689188
3.2479737 -0.92196459 1.1729338 4285754981
3.2480285 -0.86590892 1.1729341 4285886568
3.2480652 -0.82853854 1.1729342 4285820518
3.2481205 -0.77248299 1.1729344 4285754725
3.2481756 -0.71642733 1.1729347 4285688932
3.2482123 -0.67905694 1.1729348 4285820518
3.2482491 -0.6416865 1.1729349 4285754981
1.7405727 -0.31169164 1.1739599 4285623396
1.7411115 -0.27218279 1.1739163 4285623396
1.7416602 -0.22275427 1.1738728 4285623396
1.7417089 -0.17324375 1.1738729 4285623396
1.7417574 -0.12373319 1.1738732 4285623396
1.7418063 -0.074222639 1.1738734 4285623396
1.7418548 -0.024712099 1.1738735 4285623396
1.7419035 0.024798444 1.1738738 4285689189
1.7419523 0.074308999 1.1738739 4285623396
1.7420009 0.12381954 1.1738741 4285557603
1.7430497 0.17343399 1.1737869 4285557603
1.7430984 0.2229737 1.1737871 4285623396
1.743147 0.27251339 1.1737872 4285623396
1.7431958 0.32205305 1.1737875 4285689189
1.7432445 0.3715927 1.1737876 4285689189
1.7432932 0.42113242 1.1737878 4285623396
1.7433418 0.47067207 1.173788 4285623396
1.7433907 0.52021182 1.1737882 4285623396
1.7437727 0.56986779 1.1737592 4285557603
1.7444885 0.6196574 1.1737012 4285754982
1.7445371 0.66922617 1.1737013 4285688932
1.7445859 0.718795 1.1737015 4285754981
1.7446346 0.76836377 1.1737016 4285754725
1.7446932 0.82784641 1.1737019 4285689188
1.7447418 0.87741524 1.1737021 4285820775
1.7447906 0.92698407 1.1737024 4285820518
1.7448393 0.97655296 1.1737025 4285952360
1.7457219 1.026628 1.1736288 4285886567
1.7459373 1.0763248 1.1736155 4286017641
1.745986 1.1259228 1.1736156 4286018153
1.7460251 1.165601 1.1736157 4285952105
3.2436891 -2.2278454 1.229072 4285952104
3.2437439 -2.1718421 1.2290721 4285886311
3.2437806 -2.1345067 1.2290723 4285820518
3.2438359 -2.0785036 1.2290726 4285820518
3.2438908 -2.0225005 1.2290728 4285754725
3.2439275 -1.985165 1.2290728 4285820518
3.2439828 -1.9291618 1.229073 4285754725
3.2440376 -1.8731588 1.2290733 4285952104
3.2450738 -1.8363956 1.2290443 4285754982
3.2451289 -1.7803749 1.2290444 4285886311
3.2451842 -1.7243543 1.2290447 4285754725
3.2452209 -1.6870071 1.2290448 4285952105
3.245276 -1.6309863 1.229045 4285886567
3.245331 -1.5749658 1.2290453 4285820774
3.2453678 -1.5376188 1.2290454 4286017897
3.2454228 -1.481598 1.2290456 4286017896
3.2454782 -1.4255774 1.2290457 4285886311
3.2465143 -1.3886626 1.2290169 4285886311
3.2465692 -1.3326246 1.229017 4285952104
3.2466245 -1.2765864 1.2290173 4285886567
3.2466609 -1.2392277 1.2290174 4286018153
3.246716 -1.1831895 1.2290176 4285952103
3.2467711 -1.1271514 1.2290179 4286281069
3.2468078 -1.0897927 1.229018 4286083690
3.2468629 -1.0337545 1.2290182 4286017897
3.2479179 -0.97802037 1.2289892 4286017897
3.247973 -0.92196482 1.2289895 4285952360
3.248028 -0.8659091 1.2289896 4286083689
3.2480648 -0.82853872 1.2289897 4286083689
3.2481198 -0.77248311 1.22899 4286083689
3.2481751 -0.71642751 1.2289902 4285952104
3.2482119 -0.67905712 1.2289903 4286017896
3.2482486 -0.64168668 1.2289904 4286149483
1.7405721 -0.31169182 1.2234412 4285886311
1.741111 -0.27218297 1.2234123 4285754725
1.7416598 -0.22275446 1.2233834 4285754725
1.7417084 -0.17324392 1.2233835 4285886311
1.741757 -0.12373336 1.2233837 4285886311
1.7418057 -0.074222825 1.2233839 4285886311
1.7418545 -0.024712283 1.223384 4285820518
1.7419031 0.024798259 1.2233844 4285952104
1.7419518 0.074308813 1.2233844 4285886311
1.7420006 0.12381935 1.2233847 4285886311
1.742716 0.17340305 1.2233461 4285886311
1.743098 0.22297351 1.2233267 4285886311
1.7431467 0.27251318 1.2233269 4285754725
1.7431954 0.32205287 1.2233272 4285820518
1.7432442 0.37159252 1.2233273 4285820518
1.7432928 0.42113227 1.2233276 4285886311
1.7433414 0.47067192 1.2233276 4285820518
1.7433903 0.52021164 1.223328 4285886567
1.7437724 0.56986749 1.2233086 4285820774
1.7444881 0.61965722 1.2232701 4285754725
1.7445366 0.66922599 1.2232702 4285886311
1.7445854 0.71879476 1.2232703 4285886567
1.7446342 0.7683636 1.2232705 4285820518
1.7446927 0.82784623 1.2232708 4285952104
1.7447414 0.87741506 1.2232709 4286083689
1.7447901 0.92698383 1.223271 4285952104
1.7448388 0.97655278 1.2232713 4286083689
1.7455548 1.0265288 1.2232326 4286017896
1.7459368 1.0763247 1.2232134 4286017897
1.7459859 1.1259226 1.2232137 4286083689
1.7460247 1.1656009 1.2232138 4286083689
3.2436886 -2.2278457 1.2850752 4286083689
3.2437434 -2.1718423 1.2850754 4286281068
3.2437801 -2.1345067 1.2850754 4285952103
3.2438352 -2.0785036 1.2850758 4286083689
3.2438903 -2.0225005 1.2850759 4286149482
3.243927 -1.9851652 1.2850761 4286017896
3.2439821 -1.929162 1.2850763 4286215275
3.2440369 -1.8731591 1.2850764 4286215275
3.2440736 -1.8358235 1.2850766 4286281068
3.2451284 -1.7803751 1.2850652 4286149482
3.2451837 -1.7243545 1.2850654 4286346861
3.2452204 -1.6870073 1.2850655 4286149482
3.2452755 -1.6309866 1.2850658 4286215275
3.2453306 -1.5749661 1.285066 4285886310
3.2453671 -1.537619 1.2850661 4286149482
3.2454221 -1.4815983 1.2850664 4286083689
3.2454774 -1.4255776 1.2850665 4286149482
3.2465136 -1.3886628 1.285055 4285952103
3.2465687 -1.3326248 1.2850552 4286215275
3.2466238 -1.2765867 1.2850554 4286281069
3.2466605 -1.2392279 1.2850555 4286281068
3.2467155 -1.1831897 1.2850558 4286149482
3.2467706 -1.1271516 1.285056 4286215275
3.2468073 -1.089793 1.2850561 4286281068
3.2468624 -1.0337547 1.2850564 4286083689
3.2469177 -0.97771651 1.2850566 4286017896
3.2479722 -0.921965 1.2850451 4286346604
3.2480273 -0.86590934 1.2850453 4286281068
3.248064 -0.82853895 1.2850454 4286346861
3.2481194 -0.77248341 1.2850456 4286149482
3.2481744 -0.71642774 1.2850459 4286412654
3.2482111 -0.67905736 1.285046 4286478447
3.2482479 -0.64168692 1.2850461 4286412654
1.7405717 -0.311692 1.2729229 4285952103
1.7408607 -0.27214503 1.2729142 4286083689
1.7416593 -0.22275467 1.272894 4286083690
1.741708 -0.17324412 1.272894 4286017897
1.7417567 -0.12373356 1.2728943 4286017897
1.7418053 -0.074223012 1.2728945 4286017897
1.7418541 -0.024712468 1.2728946 4286083690
1.7419027 0.024798077 1.2728949 4286083690
1.7419513 0.074308626 1.272895 4286017896
1.7420001 0.12381917 1.2728952 4286083690
1.7427154 0.17340285 1.272876 4286083689
1.7430974 0.22297333 1.2728665 4286083689
1.7431462 0.272513 1.2728667 4286083690
1.7431949 0.32205269 1.272867 4286083689
1.7432437 0.37159228 1.2728671 4286083689
1.7432925 0.42113203 1.2728673 4285952104
1.7433411 0.47067171 1.2728674 4286149482
1.7433897 0.52021146 1.2728677 4286083689
1.7434384 0.56975108 1.2728678 4286017896
1.7444875 0.61965704 1.2728388 4286017897
1.7445362 0.66922587 1.2728391 4286017896
1.7445849 0.71879458 1.2728392 4286215275
1.7446339 0.76836348 1.2728394 4286017897
1.7446922 0.82784599 1.2728397 4286018153
1.744741 0.87741488 1.2728398 4286149482
1.7447896 0.92698377 1.27284 4286215275
1.7448384 0.97655255 1.2728403 4286215275
1.7455542 1.0265287 1.2728209 4286281068
1.7459364 1.0763246 1.2728114 4286149225
1.745985 1.1259223 1.2728115 4286281068
1.7460241 1.1656008 1.2728117 4286346861
3.2436881 -2.2278457 1.3224106 4286215275
3.2437432 -2.1718426 1.3224108 4286544240
3.2437799 -2.1345069 1.3224109 4286149482
3.243835 -2.0785041 1.3224112 4286281068
3.24389 -2.0225008 1.3224114 4286281068
3.2439268 -1.9851654 1.3224115 4286149482
3.2439818 -1.9291621 1.3224118 4286149482
3.2440367 -1.8731592 1.3224119 4286346861
3.2440734 -1.8358237 1.3224121 4286346861
3.2451282 -1.7803752 1.3224123 4286346861
3.2451835 -1.7243546 1.3224125 4286281068
3.2452202 -1.6870074 1.3224126 4286017896
3.2452753 -1.6309868 1.3224128 4286083689
3.2453303 -1.5749662 1.3224131 4286149482
3.2453668 -1.5376191 1.3224132 4286017896
3.2454219 -1.4815984 1.3224134 4286346861
3.2454772 -1.4255778 1.3224136 4286149482
3.2465134 -1.3886629 1.3224138 4286346605
3.2465684 -1.3326249 1.3224139 4286412654
3.2466235 -1.2765868 1.3224142 4286478190
3.2466602 -1.239228 1.3224143 4286478190
3.2467153 -1.1831897 1.3224145 4286412653
3.2467704 -1.1271517 1.3224148 4286281068
3.2468071 -1.0897931 1.3224149 4286478447
3.2468622 -1.0337548 1.3224151 4286346861
3.2469175 -0.97771662 1.3224154 4286346861
3.2479722 -0.92196512 1.3224156 4286346604
3.2480271 -0.86590946 1.3224157 4286412653
3.2480638 -0.82853907 1.3224158 4286544239
3.2481191 -0.77248353 1.3224161 4286281068
3.2481742 -0.71642786 1.3224163 4286478447
3.2482109 -0.67905748 1.3224164 4286412654
3.2482476 -0.64168704 1.3224165 4286609776
1.7405714 -0.31169218 1.3224043 4286215275
1.7406104 -0.27210706 1.3224044 4286281068
1.7416589 -0.22275484 1.3224045 4286280812
1.7417076 -0.1732443 1.3224046 4286281068
1.7417563 -0.12373374 1.3224049 4286281068
1.741805 -0.074223198 1.3224051 4286281068
1.7418537 -0.024712654 1.3224051 4286149482
1.7419021 0.024797892 1.3224055 4286215275
1.741951 0.07430844 1.3224056 4286281068
1.7419996 0.12381898 1.3224058 4286215275
1.7426039 0.17339113 1.3224046 4286215275
1.7430971 0.22297317 1.3224062 4286281068
1.7431457 0.27251282 1.3224063 4286215275
1.7431945 0.32205251 1.3224066 4286215275
1.7432432 0.37159213 1.3224066 4286215275
1.743292 0.42113188 1.3224069 4286346861
1.7433406 0.4706715 1.3224072 4286215275
1.7433894 0.52021128 1.3224072 4286281068
1.743438 0.56975085 1.3224074 4286215275
1.7444872 0.61965686 1.3224076 4286346861
1.7445359 0.66922575 1.3224078 4286215275
1.7445844 0.71879441 1.3224081 4286215275
1.7446334 0.76836318 1.3224082 4286281068
1.7446918 0.82784593 1.3224086 4286346861
1.7447406 0.8774147 1.3224086 4286281068
1.7447892 0.92698342 1.3224089 4286346860
1.744838 0.97655237 1.3224089 4286346861
1.7453315 1.026394 1.3224078 4286478190
1.745936 1.0763243 1.3224094 4286478190
1.7459848 1.1259222 1.3224096 4286478190
1.7460238 1.1656005 1.3224097 4286478190
3.2434378 -2.2276709 1.378408 4286609776
3.2437427 -2.1718428 1.3784139 4286412654
3.2437794 -2.1345072 1.3784142 4286609776
3.2438345 -2.0785041 1.3784143 4286543983
3.2438896 -2.022501 1.3784146 4286412397
3.2439263 -1.9851656 1.3784146 4286412397
3.2439814 -1.9291623 1.3784149 4286412654
3.2440362 -1.8731593 1.3784151 4286609776
3.2440729 -1.8358239 1.3784153 4286544240
3.2451277 -1.7803755 1.378433 4286412654
3.245183 -1.7243549 1.3784332 4286412397
3.2452197 -1.6870075 1.3784332 4286478190
3.2452748 -1.6309869 1.3784335 4286478447
3.2453299 -1.5749664 1.3784337 4286543983
3.2453663 -1.5376194 1.3784339 4286610033
3.2454214 -1.4815985 1.3784341 4286544240
3.2454767 -1.4255779 1.3784342 4286544240
3.2460132 -1.388447 1.3784404 4286478447
